# .PCD v0.7 - Point Cloud Data file format
VERSION 0.7
FIELDS x y z intensity
SIZE 4 4 4 4
TYPE F F F F
COUNT 1 1 1 1
WIDTH 1080
HEIGHT 1
VIEWPOINT 0 0 0 1 0 0 0
POINTS 1080
DATA ascii
0.30851674 -0.23016328 1.6077538 0.62198579
-0.48422539 -0.2531178 1.8065344 0.55354607
-0.47695774 -0.26119113 1.8641548 0.53643614
-0.47507638 -0.26979646 1.925572 0.51932621
-0.46921122 -0.26979646 1.925572 0.51932621
-0.47913173 -0.27898809 1.991174 0.50221628
-0.35161686 -0.28882813 2.0614035 0.48510638
-0.29912215 -0.26979646 1.925572 0.51932621
-0.28882813 -0.28882813 2.0614035 0.48510638
-0.28254926 -0.28882813 2.0614035 0.48510638
-0.27627039 -0.28882813 2.0614035 0.48510638
-0.18836617 -0.28882813 2.0614035 0.48510638
-0.15069294 -0.28882813 2.0614035 0.48510638
-0.14441407 -0.28882813 2.0614035 0.48510638
-0.10046196 -0.28882813 2.0614035 0.48510638
-0.056509849 -0.28882813 2.0614035 0.48510638
-0.043952107 -0.28882813 2.0614035 0.48510638
-0.018836617 -0.28882813 2.0614035 0.48510638
-0.012557745 -0.28882813 2.0614035 0.48510638
0.031394362 -0.28882813 2.0614035 0.48510638
0.037673235 -0.28882813 2.0614035 0.48510638
0.062788725 -0.28882813 2.0614035 0.48510638
0.11064327 -0.29938766 2.1367683 0.46799645
0.1171517 -0.29938766 2.1367683 0.46799645
0.28822923 -0.24552859 1.7523692 0.570656
0.29356679 -0.24552859 1.7523692 0.570656
0.32465109 -0.2531178 1.8065344 0.55354607
-0.48422539 -0.24761525 1.8065344 0.55354607
-0.47306678 -0.27292314 1.991174 0.50221628
-0.46700183 -0.27292314 1.991174 0.50221628
-0.47719428 -0.28254926 2.0614035 0.48510638
-0.35161686 -0.28254926 2.0614035 0.48510638
-0.20092392 -0.28254926 2.0614035 0.48510638
-0.15069294 -0.28254926 2.0614035 0.48510638
-0.14441407 -0.28254926 2.0614035 0.48510638
-0.10046196 -0.28254926 2.0614035 0.48510638
-0.056509849 -0.28254926 2.0614035 0.48510638
-0.043952107 -0.28254926 2.0614035 0.48510638
-0.02511549 -0.28254926 2.0614035 0.48510638
0.037673235 -0.28254926 2.0614035 0.48510638
0.11064327 -0.29287925 2.1367683 0.46799645
0.1171517 -0.29287925 2.1367683 0.46799645
0.2971383 -0.24761525 1.8065344 0.55354607
0.30264086 -0.24761525 1.8065344 0.55354607
0.32465109 -0.24761525 1.8065344 0.55354607
-0.48422539 -0.2421127 1.8065344 0.55354607
-0.46700183 -0.26685819 1.991174 0.50221628
-0.47719428 -0.27627039 2.0614035 0.48510638
-0.47091541 -0.27627039 2.0614035 0.48510638
-0.35161686 -0.27627039 2.0614035 0.48510638
-0.16325068 -0.27627039 2.0614035 0.48510638
-0.15069294 -0.27627039 2.0614035 0.48510638
-0.14441407 -0.27627039 2.0614035 0.48510638
-0.10046196 -0.27627039 2.0614035 0.48510638
-0.094183087 -0.27627039 2.0614035 0.48510638
-0.031394362 -0.27627039 2.0614035 0.48510638
0.10413484 -0.28637081 2.1367683 0.46799645
0.11064327 -0.28637081 2.1367683 0.46799645
0.1171517 -0.28637081 2.1367683 0.46799645
0.2971383 -0.2421127 1.8065344 0.55354607
0.29356679 -0.23485343 1.7523692 0.570656
0.32465109 -0.2421127 1.8065344 0.55354607
0.30851674 -0.215472 1.6077538 0.62198579
-0.48422539 -0.23661013 1.8065344 0.55354607
-0.46463653 -0.26999152 2.0614035 0.48510638
-0.35161686 -0.26999152 2.0614035 0.48510638
-0.16325068 -0.26999152 2.0614035 0.48510638
-0.15069294 -0.26999152 2.0614035 0.48510638
0.10413484 -0.27986237 2.1367683 0.46799645
0.11064327 -0.27986237 2.1367683 0.46799645
0.1171517 -0.27986237 2.1367683 0.46799645
0.2971383 -0.23661013 1.8065344 0.55354607
0.29356679 -0.22951585 1.7523692 0.570656
0.32465109 -0.23661013 1.8065344 0.55354607
-0.48422539 -0.23110756 1.8065344 0.55354607
-0.35161686 -0.26371264 2.0614035 0.48510638
-0.23859714 -0.26371264 2.0614035 0.48510638
-0.23231827 -0.26371264 2.0614035 0.48510638
-0.10046196 -0.26371264 2.0614035 0.48510638
-0.0062788725 -0.26371264 2.0614035 0.48510638
0.10413484 -0.27335396 2.1367683 0.46799645
0.11064327 -0.27335396 2.1367683 0.46799645
0.1171517 -0.27335396 2.1367683 0.46799645
0.29356679 -0.22417828 1.7523692 0.570656
0.32465109 -0.23110756 1.8065344 0.55354607
-0.48422539 -0.22560501 1.8065344 0.55354607
-0.49267179 -0.24047075 1.925572 0.51932621
-0.48680666 -0.24047075 1.925572 0.51932621
-0.5023098 -0.25743377 2.0614035 0.48510638
-0.47287837 -0.27697161 2.2178531 0.45088649
-0.46612296 -0.27697161 2.2178531 0.45088649
-0.35161686 -0.25743377 2.0614035 0.48510638
-0.23859714 -0.25743377 2.0614035 0.48510638
-0.22603939 -0.25743377 2.0614035 0.48510638
-0.14441407 -0.25743377 2.0614035 0.48510638
-0.10046196 -0.25743377 2.0614035 0.48510638
-0.012557745 -0.25743377 2.0614035 0.48510638
-0.0062788725 -0.25743377 2.0614035 0.48510638
0.0062788725 -0.25743377 2.0614035 0.48510638
0.10046196 -0.25743377 2.0614035 0.48510638
0.10674083 -0.25743377 2.0614035 0.48510638
0.1130197 -0.25743377 2.0614035 0.48510638
0.30264086 -0.22560501 1.8065344 0.55354607
0.32465109 -0.22560501 1.8065344 0.55354607
0.30851674 -0.20078073 1.6077538 0.62198579
-0.48422539 -0.22010244 1.8065344 0.55354607
-0.49267179 -0.23460561 1.925572 0.51932621
-0.48680666 -0.23460561 1.925572 0.51932621
-0.4960309 -0.2511549 2.0614035 0.48510638
-0.48975202 -0.2511549 2.0614035 0.48510638
-0.48347315 -0.2511549 2.0614035 0.48510638
-0.47091541 -0.2511549 2.0614035 0.48510638
-0.45936757 -0.2702162 2.2178531 0.45088649
-0.45261216 -0.2702162 2.2178531 0.45088649
-0.35161686 -0.2511549 2.0614035 0.48510638
-0.35128108 -0.2702162 2.2178531 0.45088649
-0.25743377 -0.2511549 2.0614035 0.48510638
-0.2511549 -0.2511549 2.0614035 0.48510638
-0.24487601 -0.2511549 2.0614035 0.48510638
-0.23859714 -0.2511549 2.0614035 0.48510638
-0.012557745 -0.2511549 2.0614035 0.48510638
-0.0062788725 -0.2511549 2.0614035 0.48510638
0.0062788725 -0.2511549 2.0614035 0.48510638
0.10046196 -0.2511549 2.0614035 0.48510638
0.10674083 -0.2511549 2.0614035 0.48510638
0.1130197 -0.2511549 2.0614035 0.48510638
0.30264086 -0.22010244 1.8065344 0.55354607
0.32465109 -0.22010244 1.8065344 0.55354607
0.30851674 -0.19588363 1.6077538 0.62198579
-0.48422539 -0.21459988 1.8065344 0.55354607
-0.47127968 -0.22144467 1.8641548 0.53643614
-0.47719428 -0.24487601 2.0614035 0.48510638
-0.47091541 -0.24487601 2.0614035 0.48510638
-0.45261216 -0.26346081 2.2178531 0.45088649
-0.35789573 -0.24487601 2.0614035 0.48510638
-0.35161686 -0.24487601 2.0614035 0.48510638
-0.35128108 -0.26346081 2.2178531 0.45088649
-0.2511549 -0.24487601 2.0614035 0.48510638
-0.24487601 -0.24487601 2.0614035 0.48510638
-0.012557745 -0.24487601 2.0614035 0.48510638
-0.0062788725 -0.24487601 2.0614035 0.48510638
0.0062788725 -0.24487601 2.0614035 0.48510638
0.018836617 -0.24487601 2.0614035 0.48510638
0.10046196 -0.24487601 2.0614035 0.48510638
0.10674083 -0.24487601 2.0614035 0.48510638
0.1130197 -0.24487601 2.0614035 0.48510638
0.31891295 -0.25382867 2.1367683 0.46799645
0.30264086 -0.21459988 1.8065344 0.55354607
0.32465109 -0.21459988 1.8065344 0.55354607
-0.48422539 -0.20909733 1.8065344 0.55354607
-0.47127968 -0.21576659 1.8641548 0.53643614
-0.45261216 -0.2567054 2.2178531 0.45088649
-0.35161686 -0.23859714 2.0614035 0.48510638
0.10046196 -0.23859714 2.0614035 0.48510638
0.10674083 -0.23859714 2.0614035 0.48510638
0.31240451 -0.24732025 2.1367683 0.46799645
0.30264086 -0.20909733 1.8065344 0.55354607
0.32465109 -0.20909733 1.8065344 0.55354607
-0.48422539 -0.20359476 1.8065344 0.55354607
-0.47127968 -0.21008852 1.8641548 0.53643614
-0.47091541 -0.23231827 2.0614035 0.48510638
-0.47963378 -0.24994999 2.2178531 0.45088649
-0.45261216 -0.24994999 2.2178531 0.45088649
-0.35161686 -0.23231827 2.0614035 0.48510638
-0.20720279 -0.23231827 2.0614035 0.48510638
-0.1820873 -0.23231827 2.0614035 0.48510638
-0.17580843 -0.23231827 2.0614035 0.48510638
-0.07534647 -0.23231827 2.0614035 0.48510638
-0.05023098 -0.23231827 2.0614035 0.48510638
0.10046196 -0.23231827 2.0614035 0.48510638
0.10674083 -0.23231827 2.0614035 0.48510638
0.3058961 -0.24081182 2.1367683 0.46799645
0.31240451 -0.24081182 2.1367683 0.46799645
0.3319298 -0.24081182 2.1367683 0.46799645
0.2971383 -0.20359476 1.8065344 0.55354607
0.30264086 -0.20359476 1.8065344 0.55354607
0.32465109 -0.20359476 1.8065344 0.55354607
-0.48422539 -0.19809221 1.8065344 0.55354607
-0.47127968 -0.20441046 1.8641548 0.53643614
-0.47963378 -0.24319459 2.2178531 0.45088649
-0.47287837 -0.24319459 2.2178531 0.45088649
-0.45261216 -0.24319459 2.2178531 0.45088649
-0.35161686 -0.22603939 2.0614035 0.48510638
-0.20720279 -0.22603939 2.0614035 0.48510638
-0.20092392 -0.22603939 2.0614035 0.48510638
-0.19464505 -0.22603939 2.0614035 0.48510638
-0.1820873 -0.22603939 2.0614035 0.48510638
-0.17580843 -0.22603939 2.0614035 0.48510638
-0.16952956 -0.22603939 2.0614035 0.48510638
-0.07534647 -0.22603939 2.0614035 0.48510638
-0.069067597 -0.22603939 2.0614035 0.48510638
-0.062788725 -0.22603939 2.0614035 0.48510638
-0.05023098 -0.22603939 2.0614035 0.48510638
0.10046196 -0.22603939 2.0614035 0.48510638
0.10674083 -0.22603939 2.0614035 0.48510638
0.3058961 -0.2343034 2.1367683 0.46799645
0.31240451 -0.2343034 2.1367683 0.46799645
0.3319298 -0.2343034 2.1367683 0.46799645
0.2971383 -0.19809221 1.8065344 0.55354607
0.30264086 -0.19809221 1.8065344 0.55354607
0.32465109 -0.19809221 1.8065344 0.55354607
0.41883513 -0.24319459 2.2178531 0.45088649
-0.48422539 -0.19258964 1.8065344 0.55354607
-0.47963378 -0.23643918 2.2178531 0.45088649
-0.47287837 -0.23643918 2.2178531 0.45088649
-0.45261216 -0.23643918 2.2178531 0.45088649
-0.3641746 -0.21976054 2.0614035 0.48510638
-0.35161686 -0.21976054 2.0614035 0.48510638
-0.20720279 -0.21976054 2.0614035 0.48510638
-0.20092392 -0.21976054 2.0614035 0.48510638
-0.1820873 -0.21976054 2.0614035 0.48510638
-0.17580843 -0.21976054 2.0614035 0.48510638
-0.13185632 -0.21976054 2.0614035 0.48510638
-0.11929857 -0.21976054 2.0614035 0.48510638
-0.087904215 -0.21976054 2.0614035 0.48510638
-0.07534647 -0.21976054 2.0614035 0.48510638
-0.069067597 -0.21976054 2.0614035 0.48510638
-0.062788725 -0.21976054 2.0614035 0.48510638
-0.05023098 -0.21976054 2.0614035 0.48510638
0.3058961 -0.22779496 2.1367683 0.46799645
0.3319298 -0.22779496 2.1367683 0.46799645
0.2971383 -0.19258964 1.8065344 0.55354607
0.30264086 -0.19258964 1.8065344 0.55354607
0.32465109 -0.19258964 1.8065344 0.55354607
0.41883513 -0.23643918 2.2178531 0.45088649
-0.48422539 -0.18708707 1.8065344 0.55354607
-0.47127968 -0.19305432 1.8641548 0.53643614
-0.47963378 -0.22968379 2.2178531 0.45088649
-0.47287837 -0.22968379 2.2178531 0.45088649
-0.45261216 -0.22968379 2.2178531 0.45088649
-0.35161686 -0.21348166 2.0614035 0.48510638
-0.1820873 -0.21348166 2.0614035 0.48510638
-0.13185632 -0.21348166 2.0614035 0.48510638
-0.11929857 -0.21348166 2.0614035 0.48510638
-0.1130197 -0.21348166 2.0614035 0.48510638
-0.05023098 -0.21348166 2.0614035 0.48510638
0.10674083 -0.21348166 2.0614035 0.48510638
0.3058961 -0.22128654 2.1367683 0.46799645
0.3319298 -0.22128654 2.1367683 0.46799645
0.2971383 -0.18708707 1.8065344 0.55354607
0.30264086 -0.18708707 1.8065344 0.55354607
0.32465109 -0.18708707 1.8065344 0.55354607
0.41883513 -0.22968379 2.2178531 0.45088649
-0.48422539 -0.18158452 1.8065344 0.55354607
-0.47127968 -0.18737626 1.8641548 0.53643614
-0.47963378 -0.22292838 2.2178531 0.45088649
-0.47287837 -0.22292838 2.2178531 0.45088649
-0.45261216 -0.22292838 2.2178531 0.45088649
-0.35789573 -0.20720279 2.0614035 0.48510638
-0.35161686 -0.20720279 2.0614035 0.48510638
-0.13813519 -0.20720279 2.0614035 0.48510638
-0.13185632 -0.20720279 2.0614035 0.48510638
-0.11929857 -0.20720279 2.0614035 0.48510638
-0.10674083 -0.20720279 2.0614035 0.48510638
0.10674083 -0.20720279 2.0614035 0.48510638
0.3058961 -0.21477811 2.1367683 0.46799645
0.3319298 -0.21477811 2.1367683 0.46799645
0.2971383 -0.18158452 1.8065344 0.55354607
0.30264086 -0.18158452 1.8065344 0.55354607
0.32465109 -0.18158452 1.8065344 0.55354607
0.41883513 -0.22292838 2.2178531 0.45088649
0.61890942 -0.18737626 1.8641548 0.53643614
-0.48422539 -0.17608196 1.8065344 0.55354607
-0.47127968 -0.18169819 1.8641548 0.53643614
-0.47963378 -0.21617296 2.2178531 0.45088649
-0.47287837 -0.21617296 2.2178531 0.45088649
-0.45261216 -0.21617296 2.2178531 0.45088649
-0.35789573 -0.20092392 2.0614035 0.48510638
-0.35161686 -0.20092392 2.0614035 0.48510638
0.10674083 -0.20092392 2.0614035 0.48510638
0.3058961 -0.20826969 2.1367683 0.46799645
0.3319298 -0.20826969 2.1367683 0.46799645
0.2971383 -0.17608196 1.8065344 0.55354607
0.30264086 -0.17608196 1.8065344 0.55354607
0.32465109 -0.17608196 1.8065344 0.55354607
0.55077261 -0.18169819 1.8641548 0.53643614
0.55645072 -0.18169819 1.8641548 0.53643614
0.55025613 -0.17608196 1.8065344 0.55354607
0.56126124 -0.17608196 1.8065344 0.55354607
0.61890942 -0.18169819 1.8641548 0.53643614
0.62458754 -0.18169819 1.8641548 0.53643614
-0.48422539 -0.17057939 1.8065344 0.55354607
-0.47127968 -0.17602012 1.8641548 0.53643614
-0.47963378 -0.20941757 2.2178531 0.45088649
-0.47287837 -0.20941757 2.2178531 0.45088649
-0.45261216 -0.20941757 2.2178531 0.45088649
-0.35789573 -0.19464505 2.0614035 0.48510638
-0.35161686 -0.19464505 2.0614035 0.48510638
0.10674083 -0.19464505 2.0614035 0.48510638
0.3058961 -0.20176126 2.1367683 0.46799645
0.3319298 -0.20176126 2.1367683 0.46799645
0.2971383 -0.17057939 1.8065344 0.55354607
0.30264086 -0.17057939 1.8065344 0.55354607
0.32465109 -0.17057939 1.8065344 0.55354607
0.54509455 -0.17602012 1.8641548 0.53643614
0.55077261 -0.17602012 1.8641548 0.53643614
0.55645072 -0.17602012 1.8641548 0.53643614
0.55025613 -0.17057939 1.8065344 0.55354607
0.56126124 -0.17057939 1.8065344 0.55354607
0.61323136 -0.17602012 1.8641548 0.53643614
0.62458754 -0.17602012 1.8641548 0.53643614
-0.48422539 -0.16507684 1.8065344 0.55354607
-0.47127968 -0.17034204 1.8641548 0.53643614
-0.47963378 -0.20266216 2.2178531 0.45088649
-0.45261216 -0.20266216 2.2178531 0.45088649
-0.35789573 -0.18836617 2.0614035 0.48510638
-0.35161686 -0.18836617 2.0614035 0.48510638
0.10674083 -0.18836617 2.0614035 0.48510638
0.3058961 -0.19525282 2.1367683 0.46799645
0.3319298 -0.19525282 2.1367683 0.46799645
0.2971383 -0.16507684 1.8065344 0.55354607
0.30264086 -0.16507684 1.8065344 0.55354607
0.32465109 -0.16507684 1.8065344 0.55354607
0.55077261 -0.17034204 1.8641548 0.53643614
0.61323136 -0.17034204 1.8641548 0.53643614
0.60528171 -0.16507684 1.8065344 0.55354607
-0.48422539 -0.15957427 1.8065344 0.55354607
-0.47127968 -0.16466399 1.8641548 0.53643614
-0.47963378 -0.19590676 2.2178531 0.45088649
-0.45261216 -0.19590676 2.2178531 0.45088649
-0.35789573 -0.1820873 2.0614035 0.48510638
-0.35161686 -0.1820873 2.0614035 0.48510638
-0.12557745 -0.1820873 2.0614035 0.48510638
0.10674083 -0.1820873 2.0614035 0.48510638
0.3058961 -0.1887444 2.1367683 0.46799645
0.3319298 -0.1887444 2.1367683 0.46799645
0.2971383 -0.15957427 1.8065344 0.55354607
0.30264086 -0.15957427 1.8065344 0.55354607
0.32465109 -0.15957427 1.8065344 0.55354607
0.41883513 -0.19590676 2.2178531 0.45088649
0.55077261 -0.16466399 1.8641548 0.53643614
0.56212878 -0.16466399 1.8641548 0.53643614
0.61323136 -0.16466399 1.8641548 0.53643614
0.61890942 -0.16466399 1.8641548 0.53643614
-0.48422539 -0.15407172 1.8065344 0.55354607
-0.47127968 -0.15898591 1.8641548 0.53643614
-0.47963378 -0.18915135 2.2178531 0.45088649
-0.47287837 -0.18915135 2.2178531 0.45088649
-0.45261216 -0.18915135 2.2178531 0.45088649
-0.35789573 -0.17580843 2.0614035 0.48510638
-0.35161686 -0.17580843 2.0614035 0.48510638
-0.15697181 -0.17580843 2.0614035 0.48510638
-0.12557745 -0.17580843 2.0614035 0.48510638
-0.087904215 -0.17580843 2.0614035 0.48510638
0.10674083 -0.17580843 2.0614035 0.48510638
0.3058961 -0.18223597 2.1367683 0.46799645
0.3319298 -0.18223597 2.1367683 0.46799645
0.2971383 -0.15407172 1.8065344 0.55354607
0.30264086 -0.15407172 1.8065344 0.55354607
0.32465109 -0.15407172 1.8065344 0.55354607
0.41883513 -0.18915135 2.2178531 0.45088649
0.55077261 -0.15898591 1.8641548 0.53643614
0.6075533 -0.15898591 1.8641548 0.53643614
0.61890942 -0.15898591 1.8641548 0.53643614
-0.48422539 -0.14856915 1.8065344 0.55354607
-0.47127968 -0.15330784 1.8641548 0.53643614
-0.47963378 -0.18239594 2.2178531 0.45088649
-0.45261216 -0.18239594 2.2178531 0.45088649
-0.35789573 -0.16952956 2.0614035 0.48510638
-0.35161686 -0.16952956 2.0614035 0.48510638
-0.15697181 -0.16952956 2.0614035 0.48510638
-0.12557745 -0.16952956 2.0614035 0.48510638
-0.087904215 -0.16952956 2.0614035 0.48510638
0.10674083 -0.16952956 2.0614035 0.48510638
0.3058961 -0.17572755 2.1367683 0.46799645
0.3319298 -0.17572755 2.1367683 0.46799645
0.2971383 -0.14856915 1.8065344 0.55354607
0.30264086 -0.14856915 1.8065344 0.55354607
0.32465109 -0.14856915 1.8065344 0.55354607
0.41883513 -0.18239594 2.2178531 0.45088649
0.54509455 -0.15330784 1.8641548 0.53643614
0.6075533 -0.15330784 1.8641548 0.53643614
0.61890942 -0.15330784 1.8641548 0.53643614
-0.48422539 -0.14306659 1.8065344 0.55354607
-0.47127968 -0.14762978 1.8641548 0.53643614
-0.47963378 -0.17564054 2.2178531 0.45088649
-0.45261216 -0.17564054 2.2178531 0.45088649
-0.35789573 -0.16325068 2.0614035 0.48510638
-0.35161686 -0.16325068 2.0614035 0.48510638
0.10674083 -0.16325068 2.0614035 0.48510638
0.3058961 -0.16921912 2.1367683 0.46799645
0.3319298 -0.16921912 2.1367683 0.46799645
0.2971383 -0.14306659 1.8065344 0.55354607
0.30264086 -0.14306659 1.8065344 0.55354607
0.32465109 -0.14306659 1.8065344 0.55354607
0.41883513 -0.17564054 2.2178531 0.45088649
0.54509455 -0.14762978 1.8641548 0.53643614
0.55645072 -0.14762978 1.8641548 0.53643614
0.6075533 -0.14762978 1.8641548 0.53643614
0.61323136 -0.14762978 1.8641548 0.53643614
-0.48422539 -0.13756403 1.8065344 0.55354607
-0.47127968 -0.14195171 1.8641548 0.53643614
-0.47963378 -0.16888513 2.2178531 0.45088649
-0.45261216 -0.16888513 2.2178531 0.45088649
-0.35789573 -0.15697181 2.0614035 0.48510638
-0.35161686 -0.15697181 2.0614035 0.48510638
-0.16952956 -0.15697181 2.0614035 0.48510638
-0.05023098 -0.15697181 2.0614035 0.48510638
0.018836617 -0.15697181 2.0614035 0.48510638
0.10674083 -0.15697181 2.0614035 0.48510638
0.11929857 -0.15697181 2.0614035 0.48510638
0.3058961 -0.1627107 2.1367683 0.46799645
0.3319298 -0.1627107 2.1367683 0.46799645
0.2971383 -0.13756403 1.8065344 0.55354607
0.30264086 -0.13756403 1.8065344 0.55354607
0.32465109 -0.13756403 1.8065344 0.55354607
0.41883513 -0.16888513 2.2178531 0.45088649
0.54509455 -0.14195171 1.8641548 0.53643614
0.55077261 -0.14195171 1.8641548 0.53643614
0.60187525 -0.14195171 1.8641548 0.53643614
0.6075533 -0.14195171 1.8641548 0.53643614
0.61323136 -0.14195171 1.8641548 0.53643614
-0.48422539 -0.13206147 1.8065344 0.55354607
-0.47127968 -0.13627364 1.8641548 0.53643614
-0.47963378 -0.16212973 2.2178531 0.45088649
-0.47287837 -0.16212973 2.2178531 0.45088649
-0.45261216 -0.16212973 2.2178531 0.45088649
-0.35789573 -0.15069294 2.0614035 0.48510638
-0.35161686 -0.15069294 2.0614035 0.48510638
-0.12557745 -0.15069294 2.0614035 0.48510638
0.10674083 -0.15069294 2.0614035 0.48510638
0.11929857 -0.15069294 2.0614035 0.48510638
0.3058961 -0.15620226 2.1367683 0.46799645
0.3319298 -0.15620226 2.1367683 0.46799645
0.2971383 -0.13206147 1.8065344 0.55354607
0.30264086 -0.13206147 1.8065344 0.55354607
0.31914854 -0.13206147 1.8065344 0.55354607
0.32465109 -0.13206147 1.8065344 0.55354607
0.41883513 -0.16212973 2.2178531 0.45088649
0.53941649 -0.13627364 1.8641548 0.53643614
0.54509455 -0.13627364 1.8641548 0.53643614
-0.48422539 -0.1265589 1.8065344 0.55354607
-0.47127968 -0.13059556 1.8641548 0.53643614
-0.47963378 -0.15537432 2.2178531 0.45088649
-0.47287837 -0.15537432 2.2178531 0.45088649
-0.45261216 -0.15537432 2.2178531 0.45088649
-0.35161686 -0.14441407 2.0614035 0.48510638
-0.33905911 -0.14441407 2.0614035 0.48510638
-0.12557745 -0.14441407 2.0614035 0.48510638
-0.043952107 -0.14441407 2.0614035 0.48510638
-0.02511549 -0.14441407 2.0614035 0.48510638
-0.018836617 -0.14441407 2.0614035 0.48510638
0.10674083 -0.14441407 2.0614035 0.48510638
0.09932746 -0.071391612 1.0190623 0.98129427
0.10553543 -0.071391612 1.0190623 0.98129427
0.3058961 -0.14969383 2.1367683 0.46799645
0.30264086 -0.1265589 1.8065344 0.55354607
0.32465109 -0.1265589 1.8065344 0.55354607
0.60187525 -0.13059556 1.8641548 0.53643614
0.59427661 -0.1265589 1.8065344 0.55354607
0.58713359 -0.1227643 1.7523692 0.570656
0.59780872 -0.1227643 1.7523692 0.570656
-0.48422539 -0.12105635 1.8065344 0.55354607
-0.47127968 -0.1249175 1.8641548 0.53643614
-0.47963378 -0.14861892 2.2178531 0.45088649
-0.47287837 -0.14861892 2.2178531 0.45088649
-0.45261216 -0.14861892 2.2178531 0.45088649
-0.35161686 -0.13813519 2.0614035 0.48510638
-0.34533799 -0.13813519 2.0614035 0.48510638
-0.33905911 -0.13813519 2.0614035 0.48510638
-0.16325068 -0.13813519 2.0614035 0.48510638
-0.043952107 -0.13813519 2.0614035 0.48510638
-0.018836617 -0.13813519 2.0614035 0.48510638
0.10674083 -0.13813519 2.0614035 0.48510638
0.097625256 -0.067117363 1.0015982 0.99840432
0.10067604 -0.067117363 1.0015982 0.99840432
0.31240451 -0.14318541 2.1367683 0.46799645
0.59051913 -0.1249175 1.8641548 0.53643614
0.60187525 -0.1249175 1.8641548 0.53643614
0.59427661 -0.12105635 1.8065344 0.55354607
0.58713359 -0.11742672 1.7523692 0.570656
0.58040649 -0.11400841 1.7013575 0.58776593
-0.48422539 -0.11555378 1.8065344 0.55354607
-0.47127968 -0.11923943 1.8641548 0.53643614
-0.34533799 -0.13185632 2.0614035 0.48510638
-0.15697181 -0.13185632 2.0614035 0.48510638
0.097625256 -0.064066574 1.0015982 0.99840432
0.10067604 -0.064066574 1.0015982 0.99840432
0.11484738 -0.065183647 1.0190623 0.98129427
0.11592998 -0.064066574 1.0015982 0.99840432
0.11898077 -0.064066574 1.0015982 0.99840432
0.12203156 -0.064066574 1.0015982 0.99840432
0.24956611 -0.066340357 1.037146 0.9641844
0.25272518 -0.066340357 1.037146 0.9641844
0.58877403 -0.11555378 1.8065344 0.55354607
0.58179599 -0.11208914 1.7523692 0.570656
-0.48422539 -0.11005122 1.8065344 0.55354607
-0.46221513 -0.11005122 1.8065344 0.55354607
-0.45671257 -0.11005122 1.8065344 0.55354607
0.10067604 -0.061015781 1.0015982 0.99840432
0.11898077 -0.061015781 1.0015982 0.99840432
0.12203156 -0.061015781 1.0015982 0.99840432
0.12508236 -0.061015781 1.0015982 0.99840432
0.57776892 -0.11005122 1.8065344 0.55354607
0.58877403 -0.11005122 1.8065344 0.55354607
0.58179599 -0.10675156 1.7523692 0.570656
0.59247118 -0.10675156 1.7523692 0.570656
-0.48422539 -0.10454866 1.8065344 0.55354607
-0.45671257 -0.10454866 1.8065344 0.55354607
0.10067604 -0.057964992 1.0015982 0.99840432
0.12203156 -0.057964992 1.0015982 0.99840432
0.12508236 -0.057964992 1.0015982 0.99840432
0.1259743 -0.056988373 0.98472285 1.0155141
0.13197307 -0.056988373 0.98472285 1.0155141
0.13497247 -0.056988373 0.98472285 1.0155141
0.25321549 -0.057964992 1.0015982 0.99840432
0.2562663 -0.057964992 1.0015982 0.99840432
0.25931707 -0.057964992 1.0015982 0.99840432
0.58484101 -0.1078833 1.8641548 0.53643614
0.57776892 -0.10454866 1.8065344 0.55354607
0.58877403 -0.10454866 1.8065344 0.55354607
0.58179599 -0.10141398 1.7523692 0.570656
0.59247118 -0.10141398 1.7523692 0.570656
-0.48422539 -0.099046104 1.8065344 0.55354607
-0.45671257 -0.099046104 1.8065344 0.55354607
0.1259743 -0.053988986 0.98472285 1.0155141
0.12897369 -0.053988986 0.98472285 1.0155141
0.13197307 -0.053988986 0.98472285 1.0155141
0.5832715 -0.099046104 1.8065344 0.55354607
0.57645845 -0.096076407 1.7523692 0.570656
-0.48422539 -0.093543537 1.8065344 0.55354607
-0.45671257 -0.093543537 1.8065344 0.55354607
0.13568574 -0.050144728 0.96840656 1.0326241
0.13863543 -0.050144728 0.96840656 1.0326241
0.14453481 -0.050144728 0.96840656 1.0326241
0.19525051 -0.051863413 1.0015982 0.99840432
0.19496022 -0.050989598 0.98472285 1.0155141
0.57226634 -0.093543537 1.8065344 0.55354607
0.5832715 -0.093543537 1.8065344 0.55354607
0.57645845 -0.090738826 1.7523692 0.570656
0.57004207 -0.088097408 1.7013575 0.58776593
-0.48422539 -0.088040978 1.8065344 0.55354607
-0.45671257 -0.088040978 1.8065344 0.55354607
-0.45936757 -0.10808648 2.2178531 0.45088649
0.097625256 -0.048812628 1.0015982 0.99840432
0.10067604 -0.048812628 1.0015982 0.99840432
0.10323915 -0.04719504 0.96840656 1.0326241
0.10735966 -0.046425797 0.95262229 1.049734
0.11026127 -0.046425797 0.95262229 1.049734
0.14158511 -0.04719504 0.96840656 1.0326241
0.19762923 -0.04719504 0.96840656 1.0326241
0.19730963 -0.046425797 0.95262229 1.049734
0.23212898 -0.046425797 0.95262229 1.049734
0.57226634 -0.088040978 1.8065344 0.55354607
0.5832715 -0.088040978 1.8065344 0.55354607
0.57645845 -0.085401252 1.7523692 0.570656
0.57004207 -0.082915209 1.7013575 0.58776593
-0.48422539 -0.082538418 1.8065344 0.55354607
-0.45671257 -0.082538418 1.8065344 0.55354607
-0.45121002 -0.082538418 1.8065344 0.55354607
-0.45936757 -0.10133108 2.2178531 0.45088649
-0.45261216 -0.10133108 2.2178531 0.45088649
0.094574466 -0.045761839 1.0015982 0.99840432
0.097625256 -0.045761839 1.0015982 0.99840432
0.10067604 -0.045761839 1.0015982 0.99840432
0.1019792 -0.044990819 0.98472285 1.0155141
0.10445804 -0.043524183 0.95262229 1.049734
0.10735966 -0.043524183 0.95262229 1.049734
0.11420306 -0.042826146 0.93734419 1.066844
0.14453481 -0.044245347 0.96840656 1.0326241
0.1474845 -0.044245347 0.96840656 1.0326241
0.20021124 -0.043524183 0.95262229 1.049734
0.20311286 -0.043524183 0.95262229 1.049734
0.27137148 -0.044245347 0.96840656 1.0326241
0.27432117 -0.044245347 0.96840656 1.0326241
0.57776892 -0.082538418 1.8065344 0.55354607
0.5832715 -0.082538418 1.8065344 0.55354607
0.58877403 -0.082538418 1.8065344 0.55354607
0.56485987 -0.07773301 1.7013575 0.58776593
0.57004207 -0.07773301 1.7013575 0.58776593
-0.48422539 -0.077035859 1.8065344 0.55354607
-0.45671257 -0.077035859 1.8065344 0.55354607
-0.47963378 -0.094575673 2.2178531 0.45088649
-0.3985689 -0.094575673 2.2178531 0.45088649
0.094574466 -0.042711049 1.0015982 0.99840432
0.097625256 -0.042711049 1.0015982 0.99840432
0.1019792 -0.041991431 0.98472285 1.0155141
0.10445804 -0.040622573 0.95262229 1.049734
0.15043418 -0.041295659 0.96840656 1.0326241
0.15088384 -0.040622573 0.95262229 1.049734
0.19414519 -0.039971069 0.93734419 1.066844
0.23503059 -0.040622573 0.95262229 1.049734
0.23793221 -0.040622573 0.95262229 1.049734
0.25662303 -0.041295659 0.96840656 1.0326241
0.25957271 -0.041295659 0.96840656 1.0326241
0.26694554 -0.041991431 0.98472285 1.0155141
0.27137148 -0.041295659 0.96840656 1.0326241
0.27432117 -0.041295659 0.96840656 1.0326241
-0.48422539 -0.071533293 1.8065344 0.55354607
-0.45671257 -0.071533293 1.8065344 0.55354607
-0.47963378 -0.087820269 2.2178531 0.45088649
-0.45261216 -0.087820269 2.2178531 0.45088649
-0.3985689 -0.087820269 2.2178531 0.45088649
-0.39181352 -0.087820269 2.2178531 0.45088649
0.096223481 -0.040351782 1.0190623 0.98129427
0.097625256 -0.03966026 1.0015982 0.99840432
0.15088384 -0.03772096 0.95262229 1.049734
0.15378545 -0.03772096 0.95262229 1.049734
0.18265064 -0.036530126 0.92254847 1.0839539
0.18546064 -0.036530126 0.92254847 1.0839539
0.18827066 -0.036530126 0.92254847 1.0839539
-0.48422539 -0.066030733 1.8065344 0.55354607
-0.45671257 -0.066030733 1.8065344 0.55354607
-0.47963378 -0.081064865 2.2178531 0.45088649
-0.45261216 -0.081064865 2.2178531 0.45088649
-0.3985689 -0.081064865 2.2178531 0.45088649
-0.3850581 -0.081064865 2.2178531 0.45088649
-0.37830269 -0.081064865 2.2178531 0.45088649
-0.37154728 -0.081064865 2.2178531 0.45088649
0.096223481 -0.037247799 1.0190623 0.98129427
0.09932746 -0.037247799 1.0190623 0.98129427
0.10155643 -0.034819346 0.95262229 1.049734
0.10735966 -0.034819346 0.95262229 1.049734
0.11134798 -0.034260917 0.93734419 1.066844
0.31074864 -0.081064865 2.2178531 0.45088649
0.32425946 -0.081064865 2.2178531 0.45088649
0.15417412 -0.034260917 0.93734419 1.066844
0.1570292 -0.034260917 0.93734419 1.066844
0.15988427 -0.034260917 0.93734419 1.066844
0.16017056 -0.033720117 0.92254847 1.0839539
0.16321428 -0.033196125 0.90821254 1.1010638
0.19364406 -0.033196125 0.90821254 1.1010638
0.193405 -0.032688171 0.89431542 1.1181737
0.19885303 -0.032688171 0.89431542 1.1181737
0.50073308 -0.066030733 1.8065344 0.55354607
0.51173818 -0.066030733 1.8065344 0.55354607
0.49230906 -0.062186405 1.7013575 0.58776593
0.56126124 -0.066030733 1.8065344 0.55354607
0.55510813 -0.064050935 1.7523692 0.570656
0.56578326 -0.064050935 1.7523692 0.570656
0.55967766 -0.062186405 1.7013575 0.58776593
0.61915904 -0.064050935 1.7523692 0.570656
-0.48422539 -0.060528174 1.8065344 0.55354607
-0.47127968 -0.06245875 1.8641548 0.53643614
-0.47963378 -0.074309461 2.2178531 0.45088649
-0.45261216 -0.074309461 2.2178531 0.45088649
-0.3985689 -0.074309461 2.2178531 0.45088649
-0.37830269 -0.074309461 2.2178531 0.45088649
0.096223481 -0.034143817 1.0190623 0.98129427
0.09932746 -0.034143817 1.0190623 0.98129427
0.10155643 -0.031917736 0.95262229 1.049734
0.10563783 -0.03140584 0.93734419 1.066844
0.31074864 -0.074309461 2.2178531 0.45088649
0.32425946 -0.074309461 2.2178531 0.45088649
0.1570292 -0.03140584 0.93734419 1.066844
0.15988427 -0.03140584 0.93734419 1.066844
0.18534502 -0.03042978 0.90821254 1.1010638
0.18811136 -0.03042978 0.90821254 1.1010638
0.5167042 -0.06245875 1.8641548 0.53643614
0.51173818 -0.060528174 1.8065344 0.55354607
0.50173235 -0.058713358 1.7523692 0.570656
0.49230906 -0.057004206 1.7013575 0.58776593
0.2769424 -0.03140584 0.93734419 1.066844
0.28265256 -0.03140584 0.93734419 1.066844
0.61915904 -0.058713358 1.7523692 0.570656
-0.48422539 -0.055025611 1.8065344 0.55354607
-0.47127968 -0.056780685 1.8641548 0.53643614
-0.47963378 -0.067554049 2.2178531 0.45088649
-0.45261216 -0.067554049 2.2178531 0.45088649
0.096223481 -0.031039832 1.0190623 0.98129427
0.09932746 -0.031039832 1.0190623 0.98129427
0.51102614 -0.056780685 1.8641548 0.53643614
0.5062356 -0.055025611 1.8065344 0.55354607
0.49749124 -0.051822007 1.7013575 0.58776593
0.56676382 -0.055025611 1.8065344 0.55354607
0.56044573 -0.053375781 1.7523692 0.570656
0.57112086 -0.053375781 1.7523692 0.570656
-0.48422539 -0.049523052 1.8065344 0.55354607
-0.47127968 -0.051102616 1.8641548 0.53643614
-0.47963378 -0.060798649 2.2178531 0.45088649
-0.45261216 -0.060798649 2.2178531 0.45088649
-0.39181352 -0.060798649 2.2178531 0.45088649
0.097931005 -0.028431583 1.037146 0.9641844
0.10678037 -0.025290089 0.92254847 1.0839539
0.31074864 -0.060798649 2.2178531 0.45088649
0.49967 -0.051102616 1.8641548 0.53643614
0.51102614 -0.051102616 1.8641548 0.53643614
0.5062356 -0.049523052 1.8065344 0.55354607
0.50173235 -0.048038203 1.7523692 0.570656
0.2769424 -0.025695687 0.93734419 1.066844
0.56676382 -0.049523052 1.8065344 0.55354607
0.56044573 -0.048038203 1.7523692 0.570656
0.55449545 -0.046639804 1.7013575 0.58776593
0.62449664 -0.048038203 1.7523692 0.570656
-0.48422539 -0.044020489 1.8065344 0.55354607
-0.47127968 -0.045424547 1.8641548 0.53643614
-0.47963378 -0.054043241 2.2178531 0.45088649
-0.45261216 -0.054043241 2.2178531 0.45088649
-0.39181352 -0.054043241 2.2178531 0.45088649
0.097931005 -0.025272518 1.037146 0.9641844
0.10109007 -0.025272518 1.037146 0.9641844
0.098350339 -0.022480078 0.92254847 1.0839539
0.1078874 -0.02213075 0.90821254 1.1010638
0.13347669 -0.021792114 0.89431542 1.1181737
0.5062356 -0.044020489 1.8065344 0.55354607
0.50173235 -0.042700626 1.7523692 0.570656
0.49749124 -0.041457605 1.7013575 0.58776593
0.29512563 -0.021463681 0.88083708 1.1352837
0.61382151 -0.042700626 1.7523692 0.570656
0.62449664 -0.042700626 1.7523692 0.570656
-0.48422539 -0.03851793 1.8065344 0.55354607
-0.47127968 -0.039746478 1.8641548 0.53643614
-0.47963378 -0.047287837 2.2178531 0.45088649
-0.45261216 -0.047287837 2.2178531 0.45088649
-0.3985689 -0.047287837 2.2178531 0.45088649
-0.39181352 -0.047287837 2.2178531 0.45088649
0.097931005 -0.022113454 1.037146 0.9641844
0.10397036 -0.019670069 0.92254847 1.0839539
0.10512106 -0.019364405 0.90821254 1.1010638
0.11065374 -0.019364405 0.90821254 1.1010638
0.11342009 -0.019364405 0.90821254 1.1010638
0.11618643 -0.019364405 0.90821254 1.1010638
0.11895278 -0.019364405 0.90821254 1.1010638
0.13347669 -0.0190681 0.89431542 1.1181737
0.177046 -0.019364405 0.90821254 1.1010638
0.50534809 -0.039746478 1.8641548 0.53643614
0.50073308 -0.03851793 1.8065344 0.55354607
0.49639475 -0.037363045 1.7523692 0.570656
0.56126124 -0.03851793 1.8065344 0.55354607
0.29505104 -0.019670069 0.92254847 1.0839539
0.62449664 -0.037363045 1.7523692 0.570656
-0.48422539 -0.033015367 1.8065344 0.55354607
-0.47127968 -0.034068409 1.8641548 0.53643614
-0.47963378 -0.040532432 2.2178531 0.45088649
-0.45261216 -0.040532432 2.2178531 0.45088649
-0.39181352 -0.040532432 2.2178531 0.45088649
0.097931005 -0.018954389 1.037146 0.9641844
0.10397036 -0.016860059 0.92254847 1.0839539
0.10512106 -0.016598063 0.90821254 1.1010638
0.12171912 -0.016598063 0.90821254 1.1010638
0.12258063 -0.016344085 0.89431542 1.1181737
0.12530465 -0.016344085 0.89431542 1.1181737
0.13620071 -0.016344085 0.89431542 1.1181737
0.18257868 -0.016598063 0.90821254 1.1010638
0.18250895 -0.016344085 0.89431542 1.1181737
0.48972794 -0.033015367 1.8065344 0.55354607
0.50073308 -0.033015367 1.8065344 0.55354607
0.49639475 -0.032025468 1.7523692 0.570656
0.50706995 -0.032025468 1.7523692 0.570656
0.56126124 -0.033015367 1.8065344 0.55354607
0.2904661 -0.016598063 0.90821254 1.1010638
0.29323244 -0.016598063 0.90821254 1.1010638
0.61915904 -0.032025468 1.7523692 0.570656
-0.48422539 -0.027512806 1.8065344 0.55354607
-0.47127968 -0.028390342 1.8641548 0.53643614
-0.47963378 -0.033777025 2.2178531 0.45088649
-0.45261216 -0.033777025 2.2178531 0.45088649
-0.39181352 -0.033777025 2.2178531 0.45088649
0.097931005 -0.015795324 1.037146 0.9641844
0.10116035 -0.014050049 0.92254847 1.0839539
0.10896057 -0.013620071 0.89431542 1.1181737
0.12530465 -0.013620071 0.89431542 1.1181737
0.12802866 -0.013620071 0.89431542 1.1181737
0.13075268 -0.013620071 0.89431542 1.1181737
0.18523297 -0.013620071 0.89431542 1.1181737
0.49639475 -0.02668789 1.7523692 0.570656
0.50706995 -0.02668789 1.7523692 0.570656
0.50267345 -0.025911003 1.7013575 0.58776593
0.29599878 -0.013831718 0.90821254 1.1010638
0.60848391 -0.02668789 1.7523692 0.570656
0.61915904 -0.02668789 1.7523692 0.570656
-0.48422539 -0.022010244 1.8065344 0.55354607
-0.47127968 -0.022712274 1.8641548 0.53643614
-0.47963378 -0.02702162 2.2178531 0.45088649
-0.45261216 -0.02702162 2.2178531 0.45088649
-0.39181352 -0.02702162 2.2178531 0.45088649
-0.37154728 -0.02702162 2.2178531 0.45088649
0.097931005 -0.012636259 1.037146 0.9641844
0.10116035 -0.011240039 0.92254847 1.0839539
0.10623655 -0.010896057 0.89431542 1.1181737
0.11000137 -0.010731841 0.88083708 1.1352837
0.13075268 -0.010896057 0.89431542 1.1181737
0.13347669 -0.010896057 0.89431542 1.1181737
0.13620071 -0.010896057 0.89431542 1.1181737
0.23513921 -0.011065375 0.90821254 1.1010638
0.48571959 -0.021350313 1.7523692 0.570656
0.54977053 -0.021350313 1.7523692 0.570656
0.30153146 -0.011065375 0.90821254 1.1010638
0.60848391 -0.021350313 1.7523692 0.570656
0.61915904 -0.021350313 1.7523692 0.570656
-0.48422539 -0.016507683 1.8065344 0.55354607
-0.47127968 -0.017034205 1.8641548 0.53643614
-0.47963378 -0.020266216 2.2178531 0.45088649
-0.45261216 -0.020266216 2.2178531 0.45088649
-0.39181352 -0.020266216 2.2178531 0.45088649
-0.37154728 -0.020266216 2.2178531 0.45088649
0.097931005 -0.0094771944 1.037146 0.9641844
0.10463545 -0.0080488808 0.88083708 1.1352837
0.11000137 -0.0080488808 0.88083708 1.1352837
0.134148 -0.0080488808 0.88083708 1.1352837
0.23790556 -0.0082990313 0.90821254 1.1010638
0.23698923 -0.0081720427 0.89431542 1.1181737
0.30706415 -0.0082990313 0.90821254 1.1010638
-0.48422539 -0.011005122 1.8065344 0.55354607
-0.47127968 -0.011356137 1.8641548 0.53643614
-0.45261216 -0.01351081 2.2178531 0.45088649
-0.40532431 -0.01351081 2.2178531 0.45088649
-0.39181352 -0.01351081 2.2178531 0.45088649
-0.37154728 -0.01351081 2.2178531 0.45088649
0.094771944 -0.0063181296 1.037146 0.9641844
0.097931005 -0.0063181296 1.037146 0.9641844
0.10731841 -0.0053659203 0.88083708 1.1352837
0.11268432 -0.0053659203 0.88083708 1.1352837
0.13803619 -0.0052089128 0.85506368 1.1695036
0.1432451 -0.0052089128 0.85506368 1.1695036
0.14584956 -0.0052089128 0.85506368 1.1695036
0.17710304 -0.0052089128 0.85506368 1.1695036
0.19823442 -0.0052862512 0.86775911 1.1523936
0.23971324 -0.0054480284 0.89431542 1.1181737
0.23878345 -0.0053659203 0.88083708 1.1352837
0.24146642 -0.0053659203 0.88083708 1.1352837
0.2495153 -0.0053659203 0.88083708 1.1352837
0.54475355 -0.011005122 1.8065344 0.55354607
0.55575866 -0.011005122 1.8065344 0.55354607
0.54977053 -0.010675156 1.7523692 0.570656
0.54413104 -0.010364401 1.7013575 0.58776593
0.53881061 -0.010071226 1.6532317 0.60487586
-0.48422539 -0.0055025611 1.8065344 0.55354607
-0.45671257 -0.0055025611 1.8065344 0.55354607
-0.47963378 -0.0067554051 2.2178531 0.45088649
-0.47287837 -0.0067554051 2.2178531 0.45088649
-0.45261216 -0.0067554051 2.2178531 0.45088649
-0.40532431 -0.0067554051 2.2178531 0.45088649
-0.39181352 -0.0067554051 2.2178531 0.45088649
-0.37154728 -0.0067554051 2.2178531 0.45088649
0.094771944 -0.0031590648 1.037146 0.9641844
0.097931005 -0.0031590648 1.037146 0.9641844
0.10731841 -0.0026829601 0.88083708 1.1352837
0.13803619 -0.0026044564 0.85506368 1.1695036
0.17708942 -0.0026431256 0.86775911 1.1523936
0.20087755 -0.0026431256 0.86775911 1.1523936
0.24146642 -0.0026829601 0.88083708 1.1352837
0.24414937 -0.0026829601 0.88083708 1.1352837
0.55575866 -0.0055025611 1.8065344 0.55354607
0.54977053 -0.0053375782 1.7523692 0.570656
0.54413104 -0.0051822006 1.7013575 0.58776593
0.53881061 -0.0050356132 1.6532317 0.60487586
0.54888183 -0.0050356132 1.6532317 0.60487586
0.60848391 -0.0053375782 1.7523692 0.570656
0.60113525 -0.0051822006 1.7013575 0.58776593
-0.48422539 0 1.8065344 0.55354607
-0.45671257 0 1.8065344 0.55354607
-0.47963378 0 2.2178531 0.45088649
-0.45261216 0 2.2178531 0.45088649
-0.40532431 0 2.2178531 0.45088649
-0.3985689 0 2.2178531 0.45088649
-0.37154728 0 2.2178531 0.45088649
0.09970025 0 1.0558833 0.94707435
0.10731841 0 0.88083708 1.1352837
0.11000137 0 0.88083708 1.1352837
0.12577823 0 0.84273446 1.1866134
0.12834513 0 0.84273446 1.1866134
0.17439242 0 0.88083708 1.1352837
0.1744463 0 0.86775911 1.1523936
0.17708942 0 0.86775911 1.1523936
0.17710304 0 0.85506368 1.1695036
0.18231195 0 0.85506368 1.1695036
0.18491641 0 0.85506368 1.1695036
0.18995079 0 0.84273446 1.1866134
0.55025613 0 1.8065344 0.55354607
0.54443294 0 1.7523692 0.570656
0.53894883 0 1.7013575 0.58776593
0.60848391 0 1.7523692 0.570656
0.60113525 0 1.7013575 0.58776593
-0.48422539 0.0055025611 1.8065344 0.55354607
-0.45671257 0.0055025611 1.8065344 0.55354607
-0.47963378 0.0067554051 2.2178531 0.45088649
-0.45261216 0.0067554051 2.2178531 0.45088649
-0.40532431 0.0067554051 2.2178531 0.45088649
-0.3985689 0.0067554051 2.2178531 0.45088649
-0.37154728 0.0067554051 2.2178531 0.45088649
0.09970025 0.0032161372 1.0558833 0.94707435
0.12321132 0.0025669027 0.84273446 1.1866134
0.17710304 0.0026044564 0.85506368 1.1695036
0.1797075 0.0026044564 0.85506368 1.1695036
0.24481891 0.0026044564 0.85506368 1.1695036
0.24742337 0.0026044564 0.85506368 1.1695036
0.55025613 0.0055025611 1.8065344 0.55354607
0.54443294 0.0053375782 1.7523692 0.570656
0.53894883 0.0051822006 1.7013575 0.58776593
0.54931325 0.0051822006 1.7013575 0.58776593
-0.48422539 0.011005122 1.8065344 0.55354607
-0.45671257 0.011005122 1.8065344 0.55354607
-0.47963378 0.01351081 2.2178531 0.45088649
-0.45261216 0.01351081 2.2178531 0.45088649
-0.40532431 0.01351081 2.2178531 0.45088649
-0.3985689 0.01351081 2.2178531 0.45088649
-0.37154728 0.01351081 2.2178531 0.45088649
0.11555378 0.011005122 1.8065344 0.55354607
0.12105635 0.011005122 1.8065344 0.55354607
0.1265589 0.011005122 1.8065344 0.55354607
0.13206147 0.011005122 1.8065344 0.55354607
0.10109007 0.0063181296 1.037146 0.9641844
0.11551062 0.0051338053 0.84273446 1.1866134
0.11807752 0.0051338053 0.84273446 1.1866134
0.18231195 0.0052089128 0.85506368 1.1695036
0.18995079 0.0051338053 0.84273446 1.1866134
0.18712144 0.0049899048 0.81911266 1.2208333
0.24481891 0.0052089128 0.85506368 1.1695036
0.24742337 0.0052089128 0.85506368 1.1695036
0.25002781 0.0052089128 0.85506368 1.1695036
0.54443294 0.010675156 1.7523692 0.570656
0.53894883 0.010364401 1.7013575 0.58776593
0.54931325 0.010364401 1.7013575 0.58776593
0.60314631 0.010675156 1.7523692 0.570656
0.59595305 0.010364401 1.7013575 0.58776593
0.60631746 0.010364401 1.7013575 0.58776593
-0.48422539 0.016507683 1.8065344 0.55354607
-0.45671257 0.016507683 1.8065344 0.55354607
-0.47963378 0.020266216 2.2178531 0.45088649
-0.45261216 0.020266216 2.2178531 0.45088649
-0.40532431 0.020266216 2.2178531 0.45088649
-0.3985689 0.020266216 2.2178531 0.45088649
-0.37154728 0.020266216 2.2178531 0.45088649
0.1265589 0.016507683 1.8065344 0.55354607
0.13206147 0.016507683 1.8065344 0.55354607
0.10109007 0.0094771944 1.037146 0.9641844
0.10463545 0.0080488808 0.88083708 1.1352837
0.10731841 0.0080488808 0.88083708 1.1352837
0.11294372 0.0077007078 0.84273446 1.1866134
0.13347894 0.0077007078 0.84273446 1.1866134
0.13861275 0.0077007078 0.84273446 1.1866134
0.14374654 0.0077007078 0.84273446 1.1866134
0.18481699 0.0077007078 0.84273446 1.1866134
0.54475355 0.016507683 1.8065344 0.55354607
0.5390954 0.016012734 1.7523692 0.570656
0.53376663 0.015546601 1.7013575 0.58776593
0.58558863 0.015546601 1.7013575 0.58776593
0.59595305 0.015546601 1.7013575 0.58776593
0.58916676 0.01510684 1.6532317 0.60487586
-0.48422539 0.022010244 1.8065344 0.55354607
-0.46221513 0.022010244 1.8065344 0.55354607
-0.45671257 0.022010244 1.8065344 0.55354607
-0.47963378 0.02702162 2.2178531 0.45088649
-0.45261216 0.02702162 2.2178531 0.45088649
-0.40532431 0.02702162 2.2178531 0.45088649
-0.3985689 0.02702162 2.2178531 0.45088649
-0.37154728 0.02702162 2.2178531 0.45088649
0.10109007 0.012636259 1.037146 0.9641844
0.13861275 0.010267611 0.84273446 1.1866134
0.14117964 0.010267611 0.84273446 1.1866134
0.14374654 0.010267611 0.84273446 1.1866134
0.21955581 0.0099798096 0.81911266 1.2208333
0.22205077 0.0099798096 0.81911266 1.2208333
0.52842021 0.021350313 1.7523692 0.570656
0.5390954 0.021350313 1.7523692 0.570656
0.53376663 0.020728802 1.7013575 0.58776593
0.52873939 0.020142453 1.6532317 0.60487586
0.59595305 0.020728802 1.7013575 0.58776593
0.58916676 0.020142453 1.6532317 0.60487586
-0.48422539 0.027512806 1.8065344 0.55354607
-0.46221513 0.027512806 1.8065344 0.55354607
-0.45671257 0.027512806 1.8065344 0.55354607
-0.47963378 0.033777025 2.2178531 0.45088649
-0.45261216 0.033777025 2.2178531 0.45088649
-0.40532431 0.033777025 2.2178531 0.45088649
-0.39181352 0.033777025 2.2178531 0.45088649
-0.37154728 0.033777025 2.2178531 0.45088649
-0.022712274 0.028390342 1.8641548 0.53643614
-0.017034205 0.028390342 1.8641548 0.53643614
0.13206147 0.027512806 1.8065344 0.55354607
0.09932746 0.015519916 1.0190623 0.98129427
0.14374654 0.012834513 0.84273446 1.1866134
0.1442337 0.01265208 0.83075559 1.2037234
0.18995079 0.012834513 0.84273446 1.1866134
0.18978119 0.01265208 0.83075559 1.2037234
0.19415407 0.012134629 0.79677898 1.2550532
0.21761577 0.01265208 0.83075559 1.2037234
0.21955581 0.012474762 0.81911266 1.2208333
0.5390954 0.02668789 1.7523692 0.570656
0.53376663 0.025911003 1.7013575 0.58776593
0.52873939 0.025178067 1.6532317 0.60487586
0.53881061 0.025178067 1.6532317 0.60487586
0.59077084 0.025911003 1.7013575 0.58776593
0.58413112 0.025178067 1.6532317 0.60487586
-0.48422539 0.033015367 1.8065344 0.55354607
-0.47963378 0.040532432 2.2178531 0.45088649
-0.47287837 0.040532432 2.2178531 0.45088649
-0.45261216 0.040532432 2.2178531 0.45088649
-0.40532431 0.040532432 2.2178531 0.45088649
0.13206147 0.033015367 1.8065344 0.55354607
0.09932746 0.0186239 1.0190623 0.98129427
0.10243145 0.0186239 1.0190623 0.98129427
0.14470725 0.014969715 0.81911266 1.2208333
0.14720219 0.014969715 0.81911266 1.2208333
0.15289633 0.014561555 0.79677898 1.2550532
0.15562852 0.014365709 0.78606272 1.2721632
0.18978119 0.015182495 0.83075559 1.2037234
0.19231161 0.015182495 0.83075559 1.2037234
0.19484203 0.015182495 0.83075559 1.2037234
0.21761577 0.015182495 0.83075559 1.2037234
0.52308267 0.032025468 1.7523692 0.570656
0.53375781 0.032025468 1.7523692 0.570656
0.52858448 0.031093203 1.7013575 0.58776593
0.52370375 0.03021368 1.6532317 0.60487586
0.52873939 0.03021368 1.6532317 0.60487586
0.53881061 0.03021368 1.6532317 0.60487586
0.58040649 0.031093203 1.7013575 0.58776593
0.59077084 0.031093203 1.7013575 0.58776593
0.58413112 0.03021368 1.6532317 0.60487586
-0.48422539 0.03851793 1.8065344 0.55354607
-0.45671257 0.03851793 1.8065344 0.55354607
-0.40532431 0.047287837 2.2178531 0.45088649
-0.28063062 0.03851793 1.8065344 0.55354607
-0.27512807 0.03851793 1.8065344 0.55354607
-0.27254727 0.039746478 1.8641548 0.53643614
0.13206147 0.03851793 1.8065344 0.55354607
0.10067604 0.021355525 1.0015982 0.99840432
0.10780991 0.017968317 0.84273446 1.1866134
0.14720219 0.017464668 0.81911266 1.2208333
0.14762814 0.017223284 0.80779147 1.2379433
0.15254907 0.017223284 0.80779147 1.2379433
0.15532325 0.01698848 0.79677898 1.2550532
0.19484203 0.017712912 0.83075559 1.2037234
0.52842021 0.037363045 1.7523692 0.570656
0.52858448 0.036275405 1.7013575 0.58776593
0.52370375 0.035249293 1.6532317 0.60487586
0.58040649 0.036275405 1.7013575 0.58776593
0.59077084 0.036275405 1.7013575 0.58776593
0.58413112 0.035249293 1.6532317 0.60487586
-0.48422539 0.044020489 1.8065344 0.55354607
-0.47127968 0.045424547 1.8641548 0.53643614
-0.31364599 0.044020489 1.8065344 0.55354607
-0.29163575 0.044020489 1.8065344 0.55354607
-0.28063062 0.044020489 1.8065344 0.55354607
-0.27254727 0.045424547 1.8641548 0.53643614
-0.26686922 0.045424547 1.8641548 0.53643614
-0.26119113 0.045424547 1.8641548 0.53643614
-0.051102616 0.045424547 1.8641548 0.53643614
0.022010244 0.044020489 1.8065344 0.55354607
0.12105635 0.044020489 1.8065344 0.55354607
0.1265589 0.044020489 1.8065344 0.55354607
0.10067604 0.024406314 1.0015982 0.99840432
0.10780991 0.020535221 0.84273446 1.1866134
0.11227286 0.019959619 0.81911266 1.2208333
0.14720219 0.019959619 0.81911266 1.2208333
0.14762814 0.019683752 0.80779147 1.2379433
0.51822007 0.041457605 1.7013575 0.58776593
-0.48422539 0.049523052 1.8065344 0.55354607
-0.47127968 0.051102616 1.8641548 0.53643614
-0.31364599 0.049523052 1.8065344 0.55354607
-0.27254727 0.051102616 1.8641548 0.53643614
-0.051102616 0.051102616 1.8641548 0.53643614
0.011005122 0.049523052 1.8065344 0.55354607
0.022010244 0.049523052 1.8065344 0.55354607
0.1265589 0.049523052 1.8065344 0.55354607
0.10067604 0.027457101 1.0015982 0.99840432
0.10372683 0.027457101 1.0015982 0.99840432
0.10780991 0.023102123 0.84273446 1.1866134
0.11227286 0.022454573 0.81911266 1.2208333
0.14762814 0.022144221 0.80779147 1.2379433
0.15008861 0.022144221 0.80779147 1.2379433
0.46639806 0.046639804 1.7013575 0.58776593
0.46327642 0.045320518 1.6532317 0.60487586
-0.48422539 0.055025611 1.8065344 0.55354607
-0.47127968 0.056780685 1.8641548 0.53643614
-0.39618441 0.055025611 1.8065344 0.55354607
-0.31364599 0.055025611 1.8065344 0.55354607
-0.30264086 0.055025611 1.8065344 0.55354607
-0.26412293 0.055025611 1.8065344 0.55354607
-0.25862038 0.055025611 1.8065344 0.55354607
0.016507683 0.055025611 1.8065344 0.55354607
0.022010244 0.055025611 1.8065344 0.55354607
0.027512806 0.055025611 1.8065344 0.55354607
0.066030733 0.055025611 1.8065344 0.55354607
0.13206147 0.055025611 1.8065344 0.55354607
0.10028946 0.029496899 0.96840656 1.0326241
0.10977791 0.024949525 0.81911266 1.2208333
0.46327642 0.050356135 1.6532317 0.60487586
0.47334766 0.050356135 1.6532317 0.60487586
0.25834924 0.024604689 0.80779147 1.2379433
0.26080972 0.024604689 0.80779147 1.2379433
0.57522428 0.051822007 1.7013575 0.58776593
0.58558863 0.051822007 1.7013575 0.58776593
0.57909554 0.050356135 1.6532317 0.60487586
0.57295966 0.048970908 1.6077538 0.62198579
-0.48422539 0.060528174 1.8065344 0.55354607
-0.47127968 0.06245875 1.8641548 0.53643614
-0.34115878 0.060528174 1.8065344 0.55354607
-0.33015367 0.060528174 1.8065344 0.55354607
